# .PCD v0.7 - Point Cloud Data file format
VERSION 0.7
FIELDS x y z
SIZE 4 4 4
TYPE F F F
COUNT 1 1 1
WIDTH 347
HEIGHT 1
VIEWPOINT 0 0 0 1 0 0 0
POINTS 347
DATA ascii
0.1628899 -0.0086870138 0.47775367
-0.075820528 -0.096608318 0.61083764
0.12066629 0.043809373 0.51151383
0.12678431 0.037469879 0.50110054
0.11549294 0.061339781 0.50637376
0.057620537 -0.11826453 0.53215653
-0.10949277 0.074966989 0.58764833
-0.04888938 -0.17058873 0.5785929
0.067270018 -0.080656797 0.51188117
0.10345003 0.086253524 0.50635535
0.16981225 0.087433457 0.48424691
-0.19064853 0.18005742 0.6146419
-0.095296592 -0.10876501 0.61773008
0.16442427 0.039542004 0.4973388
0.11347391 0.078269072 0.50093275
0.10972386 0.052292243 0.51185781
0.12710503 0.084139898 0.49738908
0.12189759 0.064062171 0.50058413
-0.16631475 0.17252631 0.60571009
0.065279223 -0.11457635 0.52802032
0.15120263 0.084072188 0.49141991
0.13490263 0.026450254 0.49762687
0.14666913 0.068127364 0.49095643
0.16056052 0.090850189 0.48954019
0.15582806 0.049026046 0.48466086
0.16237707 0.080758095 0.48712683
0.086740516 0.077031434 0.50676966
-0.080737039 -0.10976852 0.61488032
0.10451687 0.076704234 0.50729501
0.10270861 0.076860905 0.5096913
0.12987284 0.072267652 0.49765489
0.15348433 -0.0055682622 0.48419413
0.14054094 0.00040418922 0.48671672
0.17292608 0.034177482 0.54028279
0.1050415 0.065861523 0.5084483
0.094409354 0.031351671 0.5315963
0.1141431 -0.037699558 0.48992872
0.14835477 0.028148083 0.50523019
0.11238646 0.087568171 0.50377464
-0.098953895 0.021778293 0.59185427
-0.17746848 0.19672348 0.60920155
-0.19434141 0.15070623 0.61687154
0.12935299 0.067010634 0.49727806
-0.12550202 0.080835037 0.58981299
-0.041771278 -0.11537043 0.61904669
0.072088465 0.03789271 0.53105307
0.14413191 -0.008937181 0.48424515
0.13839532 0.055349886 0.49452594
0.085361965 0.03915111 0.5313471
-0.055466786 -0.10189696 0.61443955
-0.10122082 -0.091875337 0.61374426
0.18151006 0.026521116 0.61696535
0.054890823 0.0011736882 0.22286516
0.10073658 0.035503916 0.52375478
-0.16474572 0.13720828 0.60602868
0.12069926 0.070613533 0.50096542
0.037179619 -0.1033212 0.55826485
-0.20096882 0.12185377 0.62033731
0.13069053 0.015676368 0.51023054
0.033639714 0.12982556 0.53149748
0.12661055 -0.0072849495 0.47173718
-0.16064934 0.16137101 0.60419965
0.10476041 0.015317376 0.53629613
0.10329988 0.094140358 0.5068931
0.060675785 0.10453122 0.52185875
-0.003470113 0.14703462 0.54438639
-0.16412139 0.18055281 0.60489511
0.10920521 0.029613288 0.52509707
0.026730673 -0.089205921 0.5348376
0.062444896 -0.021363726 0.57532334
0.13020439 0.058445711 0.49732542
-0.036160719 -0.16462199 0.57336968
0.018286841 -0.050718728 0.37700844
0.15908836 0.068416923 0.48984897
0.14809421 0.0014480087 0.48693568
-0.096505947 0.030924814 0.59024984
0.14635961 0.060553022 0.4923448
0.094301634 0.098645546 0.50933981
0.018764094 0.032813519 0.55494601
-0.055308491 0.18705407 0.56307662
-0.017357355 0.041089419 0.56708831
0.094205074 0.019050786 0.53255814
0.033043299 -0.14107271 0.54417968
0.081090882 0.026882214 0.53345799
0.047083739 -0.074652389 0.50489378
-0.070115782 0.20508674 0.56998867
0.11513092 0.011006715 0.54289335
0.10945601 -0.0069609624 0.451157
0.10297772 0.0039893193 0.54914075
0.077551849 0.051401038 0.52251667
-0.04627274 -0.14199087 0.5628438
-0.17329836 0.18239804 0.60804254
0.078576759 0.012603327 0.54119372
0.12255304 -0.0060985363 0.48400185
-0.026335984 -0.047025472 0.59373283
-0.033186611 0.085839137 0.56497777
-0.006020193 0.19823962 0.54537612
0.02517092 0.06321796 0.54403675
0.057793114 -0.026453521 0.5854646
0.1742526 0.10525028 0.48289362
0.059637908 0.1542806 0.52211547
0.10560437 0.11826997 0.50459886
-0.2171475 0.11060075 0.62582612
-0.002486717 0.16520007 0.54356778
0.074120961 0.025575459 0.53738648
-0.124648 0.11569539 0.59286541
0.14547345 0.044129528 0.49454832
0.010796599 0.19188181 0.53754991
-0.16058563 0.15024507 0.60425967
0.14798245 0.097030953 0.442081
-0.04543893 0.20262982 0.55868322
-0.075649589 0.19362622 0.57047558
-0.0058384482 0.15730651 0.54751986
-0.045068234 -0.15216054 0.56997287
0.087708414 -0.046008393 0.49046096
0.057180636 0.0873105 0.526685
0.068378799 0.050979912 0.52709794
-0.21217565 0.106876 0.62717927
0.075787999 0.082332313 0.52147257
0.057339285 0.11970253 0.52206057
-0.088560171 0.21174642 0.5761649
0.042286679 0.13181467 0.52901804
-0.059501246 -0.14993159 0.56805444
0.038770963 0.052307446 0.52358699
0.083262011 0.10288128 0.51310295
-0.021014491 0.15370522 0.55121344
0.045346279 0.12372372 0.52760655
-0.0066590603 0.073632546 0.5541079
0.034002606 0.074336581 0.53729516
0.061581302 -0.048730262 0.47362843
0.10071539 0.15549985 0.50641513
0.0194376 0.076890171 0.544622
-0.09621226 0.19346981 0.57749754
0.060922571 -0.039576802 0.60864353
0.032962516 0.058031172 0.54140383
0.044528153 0.0020824519 0.55553347
-0.018066382 0.016727632 0.56968886
-0.075961776 -0.11968379 0.62535429
0.068788871 0.082596689 0.52206498
0.018157316 0.13747393 0.53684038
0.15395901 0.094680414 0.48875189
-0.034378473 0.16449757 0.55575651
0.082225956 -0.02449346 0.60134113
-0.11333294 0.14936994 0.58560246
0.015567604 0.096647173 0.54234827
0.0018739701 -0.023886591 0.5778659
-0.16734591 0.11337834 0.60850608
0.077259749 0.097769454 0.51737005
0.031704929 0.16080555 0.53088522
0.047115114 0.17924838 0.52534992
0.027931439 0.008053802 0.55440825
-0.096143931 0.199341 0.57766294
-0.065146834 -0.16238222 0.57705134
-0.022295929 0.16902158 0.54556233
0.10487317 0.0080162836 0.53836918
0.066002876 0.16289972 0.51889515
0.058129169 0.096868552 0.52506649
0.072071359 0.092276916 0.52028596
-0.072373204 -0.13726598 0.52576035
0.047008883 0.012864472 0.54182374
0.047395404 0.085793927 0.5298599
0.040298332 0.066827886 0.5358218
-0.094951347 -0.11643571 0.6166364
-0.15261687 0.13425419 0.59685159
0.015208257 -0.025331346 0.57351381
-0.0022453344 -0.00015631736 0.57051915
0.062055264 0.026028804 0.53578097
0.041245665 0.095953964 0.53095734
0.0072457148 0.032376382 0.5589813
0.02428605 0.075130396 0.5414747
-0.13345534 0.18893175 0.59315866
0.051921889 -0.09226308 0.5045132
0.045936868 0.02602596 0.54527128
0.067220427 0.062854119 0.52608913
0.021092527 0.12964177 0.53622895
-0.12123535 0.10165255 0.59013921
-0.03045965 0.021169249 0.57455009
0.013660326 -0.11322028 0.53214872
0.079166383 0.15786304 0.51390749
0.04593214 -0.0076440996 0.56228322
0.10905432 -0.023612933 0.6669516
0.10562854 -0.030861177 0.49118483
0.096895821 0.048000485 0.54475075
0.024700776 -0.1408909 0.54471123
0.144954 -0.0069755521 0.69570845
0.17833382 -0.0016334272 0.79081231
0.056466095 -0.10432374 0.51482272
0.052603651 0.15542588 0.52340537
-0.14636974 0.19982193 0.59700215
0.025169654 0.092140757 0.53826082
0.055611476 0.19179644 0.52184474
0.013281411 0.049722608 0.55131811
-0.0023624853 -0.074300714 0.42730564
-0.20472977 0.15943778 0.62155086
-0.080672666 0.17514564 0.57145315
0.081579283 0.15676878 0.51324773
-0.0084407246 -0.055478707 0.59951931
0.002825818 0.013668706 0.58172041
0.095282979 0.082057066 0.51037991
0.03310173 0.10365067 0.53428125
-0.14187339 0.1045828 0.59890896
0.1432524 0.08381217 0.49314448
0.097901046 0.00028439768 0.55481833
0.032674134 0.046554863 0.54318792
0.059676744 0.034128033 0.53677595
-0.062759951 0.17297135 0.56719011
0.10178358 -0.0082231592 0.4533422
-0.030657895 0.1934112 0.54933983
0.098315731 0.021543952 0.53259349
0.14084123 0.073214918 0.4841038
0.030505717 0.10254528 0.5346821
0.0029444478 0.13769476 0.54262614
0.096865237 -0.032260187 0.4806771
-0.0026134755 -0.012769476 0.57442528
0.11582097 0.032094639 0.53077382
0.056530613 -0.016010802 0.49899048
-0.033835933 0.03038305 0.57376325
-0.14916202 0.05665544 0.6026324
0.13678217 0.14013776 0.49762061
0.036050547 0.022549484 0.54953158
-0.15027991 0.079526976 0.59943682
-0.095009007 0.14461227 0.57570267
-0.0008900126 -0.031270053 0.19314206
0.13919473 -0.00011866732 0.63263023
-0.11668511 0.13532868 0.58744913
0.014913756 0.0099578407 0.56190252
0.042906914 0.034259494 0.5465005
0.1037941 0.10872907 0.50504041
0.068443403 -0.0058966521 0.55366123
0.07416971 -0.096432731 0.5213201
0.013409776 -0.070599742 0.63855779
0.10181004 0.13939776 0.50580347
-0.082657792 0.16909842 0.57370901
-0.082800262 -0.095848866 0.6111272
0.049228419 0.041773435 0.53802544
0.067054816 0.15100113 0.51987833
-0.021742512 -0.020343097 0.58490485
0.10081811 0.14148346 0.50702715
0.091389008 0.11211208 0.50965631
0.072009005 0.11815961 0.51756626
0.12499627 0.041086499 0.50250506
-0.17138408 0.10921983 0.61064196
0.058411933 0.07921131 0.52658564
0.1190462 0.058116224 0.49996296
0.12031379 0.10081477 0.51073819
0.074830651 0.11545765 0.51571733
0.095547609 0.16045326 0.5088343
0.12816946 0.11354154 0.49782398
-0.021858634 -0.054989904 0.60622215
0.039850254 0.014618382 0.54892701
0.06603501 -0.013920141 0.56526583
0.047980096 0.19492747 0.52423584
-0.025836056 0.20415965 0.55015612
0.039769329 0.1792105 0.52816921
-0.086118035 0.20332712 0.57410139
-0.040067736 0.10868588 0.56307101
0.096202426 0.05671731 0.522129
0.12164177 0.14280736 0.49820679
0.0054602516 0.020192608 0.56106859
0.11703244 0.13823266 0.50139862
-0.0038439073 -0.10091289 0.51032555
-0.13480055 0.16787259 0.5928297
0.033865929 0.095498919 0.53425729
0.060870606 0.069948323 0.52688718
-0.14372244 0.18783483 0.5972206
-0.011960724 0.056768812 0.56125009
0.082705982 0.14188674 0.51628929
0.13383052 0.040248744 0.50135267
-0.060947098 0.21177061 0.5645476
0.061405793 0.16739359 0.51999098
-0.07047154 0.13965362 0.57742411
0.008549829 -0.036752168 0.57811421
-0.021548837 0.18188471 0.55042148
0.055103499 0.059872583 0.53108174
0.06167496 -0.10906332 0.53837204
0.048768397 0.17359327 0.53239787
0.14648017 0.13869156 0.49156684
0.11784086 -0.011476374 0.63204771
-0.068874128 0.15645011 0.56744742
0.12913239 0.14893049 0.49693003
0.10495429 0.11224462 0.50545919
-0.14526029 0.20899327 0.59675103
0.068247579 0.015116904 0.54933381
0.037090674 0.12303513 0.53186953
0.062356487 0.053673532 0.53048235
0.023695489 -0.036305882 0.58201593
-0.22825091 0.034172796 0.63403267
-0.033707358 0.095432222 0.56459588
-0.010352894 0.17217405 0.54599118
0.061969362 0.057570383 0.53014886
-0.0062647988 0.023427302 0.56617683
0.076065347 0.14151827 0.51884574
0.088623546 0.16029923 0.51173055
-0.067576736 0.19518584 0.56732851
0.032263257 0.026284117 0.55711043
-0.23030636 0.044364255 0.6317665
-0.12606648 0.20630103 0.58937967
0.058370609 -0.013322438 0.56337363
-0.082245134 0.19198266 0.57337052
0.1081157 0.14558008 0.5028441
0.080306314 0.16429602 0.51260674
-0.073062159 0.16846052 0.56839252
-0.062808357 0.18284026 0.56594217
-0.011357679 -0.024617149 0.58155656
0.091917627 -0.051873922 0.49642968
-0.13388279 0.033808056 0.59266251
-0.14269009 0.09122353 0.59910953
0.14061984 0.0023253621 0.62528431
-0.011505766 0.00041012367 0.57432073
0.074204274 -0.040014468 0.47108629
0.088812612 0.15446201 0.51128012
-0.15728025 0.028166693 0.61336911
0.13945162 0.098939277 0.49138576
0.040042028 -0.019562963 0.56947047
0.1352466 0.12679385 0.49293295
0.078079619 0.065313943 0.5182358
-0.14302307 0.15067169 0.59777552
0.080026634 0.11533228 0.51380533
0.031443056 0.15539847 0.54249477
-0.017744662 0.10172296 0.55706787
0.036899034 -0.078970082 0.50332296
0.02236402 0.012713019 0.55877244
0.071360379 -0.028246241 0.60130149
0.037343185 0.17382531 0.52964485
0.01773666 -0.0093310652 0.56798613
0.05271025 -0.034667276 0.59329599
0.011060495 0.1665431 0.5385533
0.11156872 0.15470353 0.50140697
0.053871538 0.14249431 0.52375823
-0.01506837 0.1901575 0.54233569
0.047494631 0.11638651 0.52510703
-0.013010447 0.012701364 0.57112521
0.15903093 0.0094130458 0.64632821
0.018679202 -0.057482854 0.6143775
-0.058988206 0.14522563 0.55645096
0.078060314 -0.016580183 0.57749403
-0.0582316 0.19461723 0.56447989
-0.0018960317 0.067474522 0.55387783
0.028343925 -0.023763178 0.5756613
0.066701457 0.13141315 0.52842563
0.091421828 -0.020819254 0.48111314
-0.031124108 -0.036019307 0.59363288
0.12000129 0.18057582 0.47506863
0.13736346 0.13158083 0.48599198
0.11134211 0.11660143 0.49380705
-0.0014598268 0.18173744 0.54303133
0.10664649 0.15753853 0.50476485
